0.446397 0.086080 -0.164341
0.443770 0.191834 -0.159021
-0.319187 -0.235379 0.082200
-0.040994 -0.069952 -0.059630
0.542549 0.137103 -0.192820
0.244948 0.161337 -0.081444
0.100686 0.145700 0.486276
-0.096549 0.199935 0.110441
-0.144095 -0.146635 0.052087
-0.173445 -0.204127 -0.237314
0.579275 0.115258 -0.138850
0.024347 0.402839 -0.058238
0.169341 0.110383 0.058083
-0.051437 -0.132144 -0.314936
0.002111 0.171211 0.442325
0.457682 0.170063 -0.141653
0.305894 0.188832 -0.213620
0.096150 0.154002 0.338036
0.027266 0.363091 0.171034
0.414813 0.064687 -0.210316
-0.030375 -0.166640 -0.319499
0.074502 0.019287 0.048985
0.215095 0.185247 0.492215
-0.071333 0.358828 0.010420
-0.056281 -0.233619 -0.289420
-0.016271 0.175098 0.336532
0.289394 0.281593 0.276177
-0.236501 0.003502 0.082830
0.116551 0.173211 0.504649
0.153839 0.196692 0.425804
-0.414198 -0.322659 0.064969
0.230320 0.144481 -0.024775
-0.101964 0.137999 -0.130971
-0.285021 -0.168686 0.103457
-0.354496 -0.271159 -0.049016
0.282351 0.231474 0.206441
0.204870 0.302490 0.186563
-0.161404 -0.359120 -0.317902
-0.363240 -0.254967 -0.061569
0.307279 0.205632 -0.136827
0.145450 0.085371 0.095204
0.500327 0.131201 -0.214929
0.008048 0.151913 0.441544
-0.043435 0.294000 -0.112234
-0.175021 -0.268347 -0.371788
-0.238535 -0.017923 0.106125
0.277065 0.099305 -0.158451
-0.137077 -0.028532 -0.170318
0.174780 0.147146 -0.184295
0.308100 0.247850 0.227188
0.103942 0.327856 -0.144364
-0.144829 -0.334103 -0.429784
-0.417407 -0.361569 0.074693
-0.409364 -0.373205 0.097672
-0.028994 0.210672 0.288917
0.090431 0.412892 -0.061821
0.284687 0.292864 0.142828
-0.176306 0.007417 0.130910
-0.072655 0.213417 0.139099
-0.194976 0.060503 -0.100765
0.081066 0.128003 -0.131437
0.582270 0.044117 -0.146641
0.242343 0.139322 0.196483
-0.457175 -0.271284 -0.079970
0.116788 0.090782 -0.104109
-0.060443 0.123339 -0.152178
-0.112938 -0.143644 -0.343128
0.151636 0.276066 -0.148495
-0.400762 -0.273249 -0.092863
-0.137058 0.160484 0.033427
-0.139679 -0.250144 -0.236189
0.287889 0.281921 0.063137
-0.326100 -0.331524 0.007150
0.092055 0.031132 -0.020346
-0.178859 -0.178607 0.059438
-0.018665 0.186394 -0.134568
-0.117145 -0.115980 -0.196610
-0.154584 0.028383 0.104130
0.079560 0.350173 -0.128936
0.239755 0.315171 -0.015712
-0.418765 -0.229078 -0.042808
0.507993 0.033409 -0.183550
-0.113392 -0.393486 -0.355785
0.217014 0.136233 -0.007402
-0.353425 -0.404990 0.076624
-0.016048 -0.053897 -0.074299
-0.117672 -0.076485 0.002102
-0.187867 -0.297709 -0.288157
-0.192249 -0.010064 0.137564
0.112726 0.231941 0.217740
0.001952 0.416726 0.085043
-0.193221 -0.347962 -0.433056
0.310839 0.023484 0.161768
0.064939 0.027112 0.065263
-0.110476 -0.099273 -0.266539
-0.026066 0.041935 -0.223996
0.009511 0.216456 -0.156675
-0.013845 -0.016586 0.039049
-0.134707 -0.028841 -0.147214
0.271457 0.165198 0.513825
-0.096439 0.044943 -0.203316
0.047864 0.432000 0.085545
0.080895 0.303387 0.204341
-0.025701 0.135628 0.301495
0.352822 0.074394 -0.205018
-0.359363 0.061147 -0.178648
0.289410 0.329257 0.077810
0.054468 0.132552 0.273125
0.462853 0.123424 -0.142768
0.148149 0.375726 0.159429
-0.292234 -0.124249 0.039726
0.574821 0.046508 -0.156531
0.345087 0.152722 0.099460
0.547806 0.007057 -0.161201
0.021417 -0.026258 -0.078629
0.058685 0.235229 0.390936
-0.196801 -0.150618 0.020963
-0.454742 -0.279888 -0.094683
0.008593 -0.046916 -0.111350
0.231064 0.113666 0.072066
0.079912 0.201209 0.477576
0.139243 0.357102 -0.111066
-0.200008 -0.356305 -0.385973
-0.302189 -0.260285 0.037625
0.116530 0.238986 0.415060
0.254520 0.260013 -0.040519
0.353666 0.184905 -0.242796
0.341639 0.278182 0.286770
-0.017905 0.067089 0.104314
0.056729 0.060909 -0.093824
-0.071044 -0.244459 -0.299539
0.274168 0.137818 -0.110688
0.001111 0.363743 -0.097073
-0.160272 -0.292319 -0.356850
-0.234031 0.005932 0.086553
-0.120272 0.217760 0.012291
0.431787 0.102850 -0.150047
0.105230 0.187629 -0.152692
0.468679 0.063101 -0.184678
0.117448 0.060826 0.121497
-0.211226 -0.362827 -0.317785
0.134553 0.180900 0.403356
-0.187720 -0.242724 -0.245329
-0.235115 -0.151077 0.130671
-0.317012 0.033406 -0.177680
-0.123556 0.134116 0.064119
0.437051 0.127009 -0.257107
0.029107 -0.035190 -0.241490
0.086243 0.397745 0.150633
-0.269121 -0.286499 -0.300680
-0.012923 0.285049 -0.139256
0.059348 0.363967 -0.116494
0.238540 0.068232 0.139634
-0.143463 0.017205 -0.117277
-0.037487 0.251844 0.183225
-0.172699 -0.256748 -0.246348
0.150372 0.362094 0.166081
-0.142184 -0.112487 0.019981
0.256238 0.309861 0.137280
0.188376 0.120475 -0.097417
-0.201202 -0.311254 -0.403844
0.162633 0.135428 0.533966
-0.119856 0.194708 0.016942
-0.396215 -0.332077 -0.057975
0.263681 0.110057 -0.197189
-0.349433 0.041884 -0.175610
0.533875 0.015039 -0.178364
-0.011846 0.397491 0.101746
0.478870 0.094687 -0.155915
-0.283552 -0.147525 -0.019013
0.257560 0.094853 0.179780
0.280243 0.332532 0.057055
0.287500 0.332903 0.070619
-0.225877 -0.074575 0.146098
0.429750 0.299240 0.095771
0.439331 0.099743 -0.240769
0.097077 0.169419 0.346076
-0.075402 0.017831 -0.258798
0.070360 0.439279 0.076242
-0.186577 0.063536 0.023339
0.105587 0.346370 -0.126762
-0.193438 0.006156 -0.111457
-0.150610 -0.245272 -0.232481
-0.445802 -0.295982 -0.083190
0.472397 0.065930 -0.210794
-0.069763 0.155918 -0.135346
0.002371 -0.006321 -0.259957
-0.228913 -0.116670 0.149665
-0.237157 -0.000168 0.029157
0.029241 0.273329 -0.150698
-0.116585 0.244939 0.056740
0.533220 0.111918 -0.132327
0.144699 0.083919 0.058266
-0.063794 -0.135577 -0.317678
0.039574 0.105645 -0.126766
-0.035519 -0.019864 -0.285272
-0.376759 0.047928 -0.214260
0.057919 0.198039 0.301358
-0.015256 -0.194961 -0.296738
-0.115939 0.212809 0.008128
0.077566 0.080993 -0.103784
-0.326586 -0.383409 0.005201
0.025152 0.332287 -0.132313
0.003484 0.394104 -0.060213
-0.095496 0.037587 -0.225127
-0.263794 -0.092741 0.102954
-0.096676 -0.219247 -0.347229
0.316468 0.138491 0.179116
0.437036 0.198782 -0.221696
0.142935 0.094019 0.119094
-0.003331 -0.005560 -0.264422
0.259780 0.267380 0.223639
-0.047165 0.022884 -0.261964
-0.161200 -0.215514 -0.227123
-0.015172 -0.105626 -0.305937
-0.230617 -0.064607 0.138652
-0.203566 -0.115765 0.003489
0.096908 0.185660 0.328324
-0.387290 -0.314038 0.058078
-0.179098 -0.226293 -0.369508
0.267419 0.211708 0.507692
-0.456453 -0.297413 -0.044660
0.286417 0.277864 0.270239
0.396231 0.238869 0.100930
0.191339 0.407040 -0.000323
-0.148560 -0.156236 0.070253
-0.190783 -0.326468 -0.421718
0.107002 0.286606 -0.161246
-0.341790 -0.152248 -0.020892
0.069954 0.173284 0.483702
0.096670 0.034536 -0.008034
-0.304468 -0.233517 -0.047317
-0.057256 -0.059426 -0.074144
0.135750 0.213851 0.495854
-0.370274 0.052254 -0.186594
0.321019 0.187518 0.050578
-0.043831 0.154856 0.212308
0.091852 0.337717 0.183670
-0.150533 0.148626 -0.036313
0.005919 0.215859 0.376664
-0.102735 -0.416795 -0.364902
-0.205456 0.031097 0.013473
0.143080 0.287250 0.202640
0.106035 0.251308 -0.157710
0.340431 0.088104 0.140635
0.034853 0.019378 -0.111307
-0.233558 0.017061 -0.085023
-0.094652 0.263810 -0.024673
0.140170 0.086367 0.117684
-0.368460 -0.191143 0.063830
-0.005350 0.105641 -0.152480
-0.197624 -0.263423 -0.373284
0.143362 0.277954 0.208448
0.483079 0.143940 -0.138531
-0.184188 -0.286622 -0.272307
-0.047165 -0.228039 -0.293680
-0.111237 -0.107869 0.035742
0.205611 0.119980 0.530604
0.126750 0.189314 0.385885
-0.219138 -0.211670 -0.294038
0.266271 0.201637 -0.054521
-0.135525 -0.015078 -0.149550
0.223773 0.252778 0.469580
-0.087724 -0.065960 0.072186
-0.190213 -0.074782 -0.012687
-0.143273 -0.141894 0.124962
0.060992 0.225052 0.350313
0.189431 0.076649 -0.051638
-0.001279 0.141761 0.407562
-0.023012 -0.033493 0.023922
0.249971 0.151297 -0.091993
-0.194445 0.032341 0.077480
-0.193448 -0.257762 -0.370837
0.287733 0.277958 0.192064
0.250554 0.119037 -0.123871
0.023390 -0.094384 -0.176330
0.253693 0.342766 0.144543
-0.046480 0.042859 -0.236979
0.277240 0.155854 -0.225218
0.301262 0.291211 0.093520
-0.085987 -0.179931 -0.226663
0.332821 0.079878 -0.170003
-0.338570 -0.131733 0.019932
0.003735 0.132301 0.399373
-0.025442 0.330918 0.155833
0.010883 0.032017 -0.182135
-0.113540 -0.080802 0.008836
-0.048917 0.162377 0.222371
-0.038899 0.225737 0.254224
-0.410230 -0.224424 0.018210
-0.254813 0.050771 -0.128224
0.036427 -0.013237 0.009759
0.057350 0.438326 -0.015429
-0.139268 -0.341978 -0.409823
0.561309 0.003600 -0.170270
-0.004301 -0.183281 -0.260686
0.272521 0.313748 0.121896
0.041047 0.000413 -0.046237
-0.036643 0.223031 0.261386
0.129490 0.303349 0.187668
0.334748 0.175311 -0.234261
0.212919 0.255713 -0.127137
0.280474 0.225171 0.205003
-0.148592 -0.113066 0.019337
-0.410333 -0.349213 0.023870
-0.051567 0.212882 0.193741
-0.000266 0.026774 0.065331
0.171206 0.416943 0.081281
-0.411326 -0.327026 0.069809
0.111634 0.397992 -0.078382
0.244505 0.173076 0.004861
-0.267175 -0.303073 -0.296123
-0.134206 -0.129196 0.120732
0.431469 0.063950 -0.202624
-0.366686 -0.297986 0.024452
0.118792 0.100821 0.408821
0.179072 0.244901 0.447834
-0.123445 0.063868 0.086606
0.282315 0.246639 0.223405
0.033184 -0.115677 -0.225900
-0.138320 -0.044357 -0.200380
-0.139951 0.190329 0.004680
0.049613 0.192100 -0.163500
-0.006253 -0.077344 -0.298519
-0.181175 -0.021462 -0.033785
0.183826 0.259554 -0.142104
0.138953 0.152287 0.163183
-0.051455 0.214501 0.178329
-0.192177 -0.307710 -0.403682
-0.292132 -0.309193 -0.361962
0.135235 0.154280 0.171643
0.253555 0.165172 -0.090583
-0.338947 -0.360319 0.070022
-0.268594 -0.125786 0.010140
-0.007947 0.196093 0.337263
0.111316 0.186559 0.353759
0.022864 0.216095 0.338566
-0.184060 -0.000588 -0.097078
-0.220106 -0.001182 0.112285
0.073908 0.428931 -0.033055
0.229468 0.097582 0.138558
0.140749 0.286721 -0.146170
-0.369879 -0.244098 -0.065974
-0.181616 -0.300553 -0.290324
0.431316 0.061184 -0.188433
0.314006 0.252007 0.158781
0.560205 0.053376 -0.172736
-0.169388 0.088823 -0.054920
0.069600 0.008230 -0.001133
-0.272831 -0.247369 -0.012110
-0.146484 0.097929 0.047893
-0.117209 0.147786 -0.109623
0.468629 0.157515 -0.221262
-0.203593 -0.191521 0.051493
-0.161013 -0.300842 -0.368562
0.535266 0.050332 -0.204967
0.196820 0.258216 -0.134500
-0.127892 -0.387523 -0.374097
0.222272 0.110665 -0.156597
0.007833 -0.135560 -0.290901
0.464197 0.126551 -0.232967
-0.023700 -0.066960 -0.047544
0.221930 0.225592 0.479201
-0.100536 -0.005313 0.105661
0.061539 0.422023 -0.046416
0.092774 0.360032 0.177409
0.239833 0.143016 -0.052204
-0.119104 -0.106686 0.026406
0.250844 0.242370 -0.074474
0.336317 0.138837 0.141338
-0.034815 0.234821 0.250114
0.085592 0.446112 0.033365
-0.002246 -0.160358 -0.309233
0.023890 0.215473 0.451960
-0.342145 -0.363257 0.078540
0.272027 0.049259 0.099349
-0.359791 -0.319651 0.047683
-0.040827 -0.005669 0.066391
-0.241228 0.007420 0.058694
0.310188 0.256088 0.158347
0.008952 0.207919 -0.161093
0.464388 0.065921 -0.200483
-0.038251 0.147436 0.252927
0.307835 0.273425 0.141973
0.069473 0.038920 0.079649
-0.227757 -0.120534 0.149797
-0.046528 0.181145 0.187624
-0.204078 -0.037724 -0.012572
-0.221579 0.017916 0.028006
-0.363728 -0.384390 0.034381
-0.158727 -0.302857 -0.334702
-0.001624 0.287637 0.197371
0.137274 0.271949 0.209483
-0.053791 0.206840 0.202784
-0.175018 -0.330927 -0.434815
0.330870 0.136723 -0.123791
0.027757 0.297425 0.205670
0.041205 -0.072980 -0.227410
0.352920 0.026156 0.187329
0.323026 0.254701 0.210913
0.293885 0.037698 0.133249
0.583582 0.031407 -0.125685
0.331302 0.232160 0.129891
-0.134652 0.064304 0.081718
0.239011 0.242807 -0.091019
0.334030 0.085416 0.167854
-0.067525 0.054713 0.087629
-0.136620 0.149959 0.038044
-0.031367 0.163446 0.311704
0.188282 0.098183 0.030224
-0.036579 0.176088 0.313324
0.046750 0.104328 -0.122902
-0.307048 0.032162 -0.179440
0.045752 -0.008979 0.009973
-0.060622 -0.237165 -0.295323
0.390470 0.232101 0.102563
-0.411206 -0.252003 0.013364
-0.059720 0.234262 0.149932
-0.107273 0.274345 0.077804
0.331625 0.113164 0.158966
-0.096107 -0.063217 -0.118994
-0.148036 0.114974 -0.085874
0.272502 0.273538 0.023541
0.031917 -0.027076 -0.005537
0.179708 0.115140 0.053694
-0.086003 -0.234817 -0.240410
-0.163078 -0.142350 -0.304450
-0.080377 0.177399 0.132980
0.378781 0.290668 0.108696
-0.138061 0.040559 0.092357
-0.007704 0.197194 0.395205
-0.051925 0.309084 -0.095508
0.277680 0.295406 0.141279
0.205281 0.397861 -0.000272
0.003862 0.063304 -0.160762
0.030437 0.033478 -0.134303
-0.392770 -0.180233 -0.002077
0.189319 0.418908 0.035730
0.076432 0.103446 0.181116
0.332733 0.063311 0.098814
0.191255 0.089763 0.023285
0.212943 0.251533 -0.164051
-0.060193 -0.047917 -0.295205
0.317983 0.128877 0.064378
0.067770 0.268748 0.222399
-0.228828 -0.178713 0.016024
0.578229 0.061321 -0.132353
-0.026082 0.081893 0.108254
-0.274146 -0.318482 -0.358403
-0.310443 -0.136063 0.072674
0.072807 0.320549 0.198068
-0.057756 -0.160081 -0.335213
0.402029 0.069056 -0.166322
0.111337 0.310247 0.191040
-0.088523 0.091862 -0.154604
0.050451 0.280528 0.217680
-0.138266 -0.056445 -0.198233
0.048075 0.233410 0.392466
0.536463 0.024353 -0.162562
0.259022 0.231518 -0.175688
0.142343 0.242159 0.474568
-0.195897 -0.315889 -0.302217
-0.110576 -0.138227 -0.338222
-0.059862 0.031126 -0.250335
0.062862 0.329844 -0.144273
0.285077 0.067845 0.088501
-0.304722 -0.177245 0.095406
0.028576 0.261542 0.239613
0.575886 0.114811 -0.151306
0.398886 0.196381 -0.146639
-0.230741 -0.007926 0.012453
-0.102653 0.033618 -0.213845
-0.000602 0.045625 -0.190740
0.255658 0.129460 0.064952
-0.337634 -0.244657 -0.058197
0.268537 0.348651 0.115068
-0.046749 0.375805 -0.016814
0.011149 0.161519 0.451918
-0.203777 0.026117 -0.137481
-0.135258 0.175585 0.033294
0.300750 0.067308 0.096339
0.091787 0.213334 0.472860
0.019318 -0.000859 -0.220963
0.356726 0.111871 -0.148339
0.388685 0.136530 -0.134253
0.074305 0.433258 0.086536
-0.176070 -0.024502 -0.036372
-0.096026 -0.080172 -0.280505
0.157505 0.204172 0.428304
-0.240471 0.039499 -0.149145
0.339904 0.258869 0.120525
-0.109316 -0.096327 -0.155520
-0.457100 -0.290664 -0.052264
0.192336 0.284516 0.183286
0.283500 0.212269 -0.116961
0.127818 0.213339 0.490750
0.377454 0.255986 0.054538
0.162608 0.046223 -0.015086
0.142978 0.151448 0.161287
-0.378827 -0.242526 0.046677
-0.141374 -0.273934 -0.354059
-0.041680 0.133709 0.138385
0.052787 0.235236 0.417235
0.292413 0.118033 0.176708
0.094424 0.220233 0.356533
-0.003482 0.021506 -0.239515
0.285398 0.263736 0.244408
-0.100817 -0.060243 -0.272385
0.138294 0.219256 0.391447
0.029128 -0.067907 -0.267176
-0.147352 -0.150609 -0.248829
0.205416 0.152130 0.159663
0.415463 0.061398 -0.170404
-0.379339 -0.374800 0.033042
0.422839 0.201621 -0.189960
0.022514 -0.032510 0.005157
-0.206469 -0.260462 -0.261946
-0.146329 -0.007744 -0.078098
0.295938 0.276190 0.064680
-0.255099 -0.114375 0.118310
-0.105707 0.277481 -0.025145
0.257521 0.234025 0.223275
-0.103525 -0.398668 -0.350557
-0.018174 -0.054614 0.000896
-0.147129 -0.147421 -0.252812
-0.111109 0.276476 -0.016079
-0.132725 -0.335464 -0.368000
0.220672 0.230119 0.200161
0.335003 0.271876 0.278642
0.001783 0.394572 0.123635
-0.354484 -0.180339 0.074804
0.089946 0.139895 0.351559
-0.217662 0.027912 -0.143761
-0.235582 -0.147252 0.130825
-0.207461 0.017886 -0.139911
0.209635 0.136025 -0.189990
0.554724 0.151709 -0.111220
-0.241048 -0.039633 0.116927
0.066645 0.205702 0.326163
-0.217097 0.009180 0.109024
0.183633 0.088129 -0.072713
-0.101677 0.133581 -0.132874
-0.332279 -0.158661 0.085184
0.321335 0.201265 -0.153417
-0.127427 0.170432 -0.049180
0.113528 0.296960 -0.157460
0.123293 0.335076 0.179792
0.022194 0.231646 0.405450
0.150928 0.223343 0.208313
-0.238047 -0.193469 -0.006156
0.039214 0.429071 0.086781
0.219031 0.158037 0.193647
-0.159081 -0.308217 -0.388801
0.328551 0.258486 0.256531
0.301728 0.236795 0.190255
-0.085944 0.062898 0.087598
0.003580 -0.041337 -0.086239
-0.021616 -0.039023 -0.288375
0.029498 -0.079423 -0.171781
0.069746 0.151514 0.482148
0.333934 0.300751 0.272105
-0.342679 -0.303690 0.001757
0.296695 0.222341 -0.178780
-0.251583 -0.338030 -0.343083
0.133120 0.214198 0.378355
-0.185238 0.001657 -0.106285
-0.058399 0.340958 0.119703
0.284326 0.209918 -0.215857
0.171587 0.335759 -0.108997
-0.136141 -0.285580 -0.318983
0.303274 0.122959 -0.221414
-0.126808 -0.372913 -0.428099
0.513902 0.122263 -0.140833
0.560584 0.174362 -0.115287
-0.015173 0.141290 -0.147260
-0.189080 -0.202801 -0.355897
0.366683 0.068112 -0.167789
-0.396396 -0.349534 0.002666
0.098086 0.206983 0.474172
0.340497 0.285323 0.103590
0.014078 -0.120700 -0.285847
-0.053586 -0.087474 -0.129312
-0.231962 -0.104270 0.003566
0.346358 0.137314 -0.118959
0.368902 0.256481 0.050048
-0.268515 -0.250846 0.048446
0.508421 0.100307 -0.217628
-0.140614 -0.223876 -0.366541
-0.168389 0.013957 -0.115078
-0.202363 -0.334970 -0.420442
0.005683 0.418862 0.073844
-0.125565 -0.242494 -0.231091
-0.381184 -0.268887 -0.073832
0.046744 0.230814 0.407626
0.233988 0.140054 0.045863
0.245196 0.092664 0.083759
-0.178388 0.011962 -0.117087
0.036961 0.041653 -0.112705
-0.009533 0.169322 0.386680
-0.147004 -0.390135 -0.402831
-0.061706 0.002895 -0.272778
-0.084449 0.334614 -0.008013
0.249298 0.139532 0.054740
0.251345 0.352814 0.033452
0.031453 0.118230 0.224937
0.366391 0.191079 -0.248367
-0.046355 0.186092 0.268425
0.073355 0.093170 0.361823
-0.185849 -0.233529 -0.371525
-0.186721 -0.175799 -0.335896
-0.095465 -0.074911 0.093239
0.385399 0.107258 -0.146834
-0.173848 0.077507 0.028317
0.238254 0.082043 0.148824
-0.105291 0.107511 0.085314
0.011985 -0.017464 -0.254491
0.547502 0.051462 -0.170926
-0.084248 0.230519 -0.078716
0.210082 0.113896 0.127138
-0.136268 0.003505 -0.107121
-0.442522 -0.256146 -0.065059
0.271915 0.344021 0.062932
0.251390 0.198940 0.493783
0.055095 0.362758 0.177530
0.369507 0.274978 0.058086
-0.037069 -0.053062 -0.298282
-0.387206 -0.338684 -0.060242
-0.352266 -0.312421 0.027442
0.243158 0.234794 0.200291
-0.294482 -0.259630 0.056435
0.128836 0.116019 0.419215
0.026728 0.217797 -0.156376
0.249277 0.312559 -0.010742
0.185034 0.088444 0.030369
-0.098670 0.046011 -0.197532
0.344156 0.256063 0.120225
-0.055642 0.060067 0.088982
0.478593 0.131759 -0.141542
-0.200315 0.053958 -0.080099
-0.164960 0.009482 -0.108838
0.563204 0.169509 -0.134645
-0.009721 0.354082 0.154260
-0.380907 -0.171649 0.029573
0.093100 0.240130 0.391569
0.014780 0.210806 0.339994
0.048838 0.234036 0.414993
0.397321 0.201118 -0.211909
-0.172539 -0.027022 -0.036647
0.448945 0.075362 -0.206433
0.368747 0.256772 0.076622
0.114263 0.052658 0.041068
-0.219302 -0.123346 0.005231
0.214028 0.338416 -0.048649
0.337010 0.089960 0.099427
0.284923 0.201797 0.011272
0.348732 0.038599 0.188037
-0.139734 0.140670 -0.069094
0.208405 0.333439 -0.056562
-0.103822 -0.208295 -0.354213
0.589350 0.032645 -0.112094
0.119075 0.199425 -0.156591
-0.084931 -0.228535 -0.342367
0.207865 0.114224 -0.140433
0.038716 0.059047 -0.111013
-0.085166 -0.129536 -0.315899
-0.386021 -0.231132 -0.066422
0.213746 0.126706 0.054992
-0.003068 -0.054809 -0.106399
-0.091486 -0.073050 0.084510
0.053373 0.280129 -0.155736
-0.428179 -0.302568 -0.095999
0.430662 0.131920 -0.260608
0.074502 0.319037 -0.150269
0.069397 0.144373 0.313735
0.026319 0.436417 0.045410
-0.349811 0.042238 -0.198844
0.081328 0.419125 -0.054510
0.178327 0.136924 0.538999
-0.080121 0.017805 0.099723
-0.154651 -0.402613 -0.349305
0.089771 0.093209 -0.107952
0.072644 0.329361 0.193960
0.458799 0.283636 0.057165
-0.029168 -0.020317 -0.284645
0.283720 0.043200 0.132363
0.075943 0.421095 -0.051839
-0.191901 0.031095 0.083163
-0.449546 -0.309854 -0.022962
-0.122073 0.110638 -0.126852
0.453421 0.301167 0.071812
0.309608 0.244431 0.200164
-0.283678 -0.181434 -0.038198
0.265804 0.156304 0.519871
-0.061570 0.084776 0.094961
0.090558 0.444561 0.010203
0.143913 0.120244 0.133794
0.338227 0.128145 0.104305
0.113318 0.046651 0.091968
0.543411 0.010514 -0.181836
0.070784 0.040286 -0.065723
0.225866 0.172610 0.198205
-0.009766 -0.155584 -0.210442
0.020313 0.046065 0.101174
-0.252030 -0.061967 0.020014
-0.161062 -0.192017 -0.232272
0.195393 0.200519 -0.205153
-0.204875 -0.206413 0.096913
-0.108576 -0.003736 0.113273
-0.165591 -0.326804 -0.433264
-0.417857 -0.350457 0.070145
-0.301186 -0.250130 0.071500
0.033641 0.095206 -0.132908
-0.172445 -0.178667 0.094912
0.426894 0.302581 0.094193
-0.039769 0.042072 -0.237486
-0.185688 -0.356980 -0.435935
-0.012907 -0.053003 -0.001137
0.490136 0.091750 -0.224627
-0.328351 -0.129576 0.051203
-0.137331 -0.008700 -0.182201
-0.418678 -0.358495 0.070795
-0.398236 -0.220503 0.034614
0.060992 0.304799 0.206641
0.224895 0.088482 0.099643
0.064786 0.152328 0.266859
-0.047276 0.199587 0.257496
-0.121685 -0.009380 -0.236755
-0.011067 -0.195788 -0.282647
-0.115710 -0.206067 -0.357088
0.139273 0.266944 0.205851
-0.046175 0.302471 0.161273
-0.210281 -0.119197 0.004299
0.512413 0.164538 -0.188485
0.264340 0.092802 0.082237
0.026128 -0.011132 -0.189595
0.033756 0.123009 0.214587
-0.100427 -0.145835 -0.222162
0.309843 0.114719 0.072439
-0.282836 -0.314382 -0.367824
0.033191 0.033731 0.080026
0.464146 0.285100 0.072329
0.418580 0.182182 -0.129303
0.316182 0.155630 0.164856
-0.125043 -0.035385 -0.118170
0.070814 0.378143 -0.105094
0.219493 0.228224 0.492551
-0.381182 -0.198279 0.051292
0.050258 0.130800 0.255091
-0.365853 -0.362366 -0.033086
0.087354 0.099904 0.436814
0.159878 0.221680 0.506959
-0.228918 -0.350780 -0.349331
-0.099471 -0.080532 -0.141014
-0.147084 -0.156765 -0.238179
-0.251888 -0.013443 0.058215
0.456302 0.178734 -0.215918
-0.192920 0.028561 0.092919
-0.434082 -0.259160 -0.093430
0.155284 0.046793 0.014118
0.153137 0.215153 -0.176390
0.122432 0.294747 -0.155826
0.301376 0.221301 0.218426
0.195147 0.307476 -0.110052
-0.107072 0.237946 -0.019753
0.168683 0.114651 0.094442
-0.404320 -0.213573 0.023128
0.265935 0.238838 -0.018078
0.051090 0.130854 0.457593
-0.039740 -0.035265 0.041394
0.038595 -0.001564 -0.048924
0.290716 0.219124 -0.140164
-0.260646 -0.327570 -0.300069
-0.408751 -0.343274 0.078487
-0.069378 -0.242889 -0.309965
0.018535 0.050856 0.112752
-0.263388 -0.244555 0.016581
0.405079 0.297539 0.104015
0.053512 0.209296 -0.162850
0.428976 0.128481 -0.136881
-0.227712 -0.031653 0.128646
0.064246 0.207475 -0.163105
0.125569 0.168995 0.395551
-0.040657 -0.099005 -0.138687
0.260539 0.269106 -0.053447
-0.126783 -0.388261 -0.333194
0.263749 0.103640 -0.159545
0.231528 0.143847 0.040393
0.251055 0.223427 -0.086816
0.003045 0.375422 0.151401
0.136166 0.051147 0.032793
0.072060 0.445668 0.030279
0.204098 0.118085 -0.078577
0.498964 0.043521 -0.207012
0.104085 0.175581 0.331086
0.011970 -0.087385 -0.290430
-0.284666 -0.148666 0.096504
-0.105078 0.238731 -0.026471
-0.344771 -0.221639 -0.062518
0.114994 0.141576 -0.135724
-0.054030 0.185465 -0.132067
-0.118165 -0.232800 -0.222221
0.222959 0.212020 0.477874
-0.034852 -0.068191 -0.017612
-0.171551 0.079467 0.007966
0.414211 0.061891 -0.202482
0.057731 0.341475 0.190449
-0.419449 -0.355163 0.068286
0.241315 0.158198 0.509116
0.234814 0.135819 0.053141
0.557513 0.077945 -0.186015
-0.277633 0.002451 -0.136088
0.270769 0.210984 -0.033405
-0.188352 -0.171166 -0.325496
-0.179746 0.031594 0.086090
0.074725 0.365974 0.175811
0.185103 0.419069 0.071286
-0.235952 -0.136224 0.136744
-0.227505 -0.321162 -0.398961
-0.038644 0.149406 -0.143150
0.335873 0.198786 -0.153112
-0.245543 -0.250078 -0.323401
-0.271360 -0.253308 0.008451
0.084613 0.427273 0.109566
-0.125568 -0.043974 -0.135390
0.035628 0.146833 -0.136506
-0.031339 -0.211600 -0.290460
0.231367 0.110958 -0.165360
0.461048 0.294848 0.070777
0.189105 0.147381 0.539002
-0.113740 0.052814 0.096409
0.497587 0.170061 -0.148925
0.339433 0.139380 -0.250089
-0.252345 -0.225793 0.095853
0.357174 0.221933 0.104276
0.282951 0.069744 0.192644
-0.092900 -0.018034 -0.269822
0.018613 -0.076843 -0.280228
-0.000103 0.246832 -0.149660
-0.178469 -0.048001 0.154810
-0.054999 -0.230782 -0.298832
0.085128 0.446034 0.024202
-0.159344 0.087275 0.043396
0.185618 0.406081 0.093942
0.029002 -0.021489 -0.209331
-0.438027 -0.313939 0.005129
0.244534 0.371219 0.049338
0.061486 0.178003 -0.159466
-0.326757 -0.138213 0.067717
0.294346 0.303308 0.109673
0.375432 0.251911 0.091501
-0.350943 -0.139219 0.047453
-0.107827 0.286441 0.020514
0.442300 0.167337 -0.125829
0.203405 0.204211 0.516279
-0.229873 -0.122584 0.005765
-0.183686 0.065469 -0.069880
0.114523 0.170802 0.214699
-0.000695 0.414584 -0.017189
-0.045157 0.332983 -0.084701
0.041153 0.209063 0.462585
0.331463 0.030789 0.193258
0.062226 0.201977 0.321667
-0.032663 0.218612 0.273213
-0.179010 -0.000036 -0.079257
0.055286 0.038179 0.083748
-0.128820 -0.280190 -0.319393
0.008212 -0.049150 -0.020701
0.221880 0.114200 -0.119431
0.317703 0.041248 0.116963
0.107110 0.162028 0.207723
-0.027103 0.393755 0.091727
0.040307 -0.020139 -0.020578
0.036717 0.421370 -0.039262
-0.135097 0.031485 -0.143437
-0.151212 -0.138566 -0.267983
0.204268 0.244801 0.194609
-0.236126 -0.335579 -0.392583
-0.126358 0.188814 -0.030755
0.247850 0.131449 -0.217146
-0.338560 -0.340560 0.032680
0.055247 0.306773 0.203719
-0.120990 0.201895 -0.013670
0.557420 0.165094 -0.146252
0.184430 0.262025 -0.135774
0.268650 0.347719 0.094450
0.319762 0.152248 0.055142
-0.108361 -0.130336 -0.200409
-0.301858 -0.137299 0.074054
-0.271274 -0.086682 0.058728
0.310003 0.182502 -0.120522
-0.230183 -0.189550 0.140411
0.446765 0.098876 -0.235936
0.331363 0.092432 -0.222710
-0.191909 -0.171060 -0.294382
0.238013 0.148458 -0.064489
0.002925 -0.184919 -0.268897
0.021929 0.233094 -0.157908
-0.244364 -0.017192 0.095058
-0.060572 -0.114953 -0.159985
-0.170800 -0.321243 -0.319160
-0.136345 0.106585 0.059138
-0.337923 -0.278561 -0.017149
0.098113 0.160072 0.334707
-0.164301 -0.298140 -0.375896
-0.001963 0.183525 0.363354
-0.147975 -0.090176 -0.000049
0.033010 0.236832 0.275749
-0.139650 -0.388031 -0.326239
0.083534 0.038996 -0.047244
0.158564 0.421169 0.094799
0.035096 0.422480 -0.026717
-0.376160 -0.198674 0.055706
-0.413904 -0.255130 0.009506
-0.004924 0.279450 0.203065
0.042538 -0.001310 -0.069638
0.034108 0.408074 -0.059711
0.376884 0.210717 -0.175414
0.022414 0.123485 0.185265
-0.320812 -0.258624 -0.039944
-0.080448 0.267217 -0.054203
0.311528 0.111536 0.175459
-0.293544 -0.128692 0.062252
-0.206344 -0.349189 -0.416295
-0.145622 -0.130851 0.034591
-0.130366 -0.398385 -0.410507
-0.306302 -0.296138 -0.336863
-0.052514 0.316816 -0.088733
0.127135 0.130481 0.497187
0.105490 0.277872 -0.162865
-0.368135 -0.150763 0.022426
0.016777 0.032307 -0.174292
0.090806 0.306497 -0.156570
-0.086754 0.236456 -0.073173
0.351311 0.164108 -0.119889
-0.048939 0.068879 0.094716
-0.046659 0.267262 -0.124783
0.441219 0.096099 -0.238791
0.151250 0.218430 0.211253
0.136228 0.054341 0.036622
-0.136654 -0.012073 -0.072329
0.024910 0.125372 0.200137
0.361368 0.169709 -0.119629
0.386605 0.208384 -0.182518
-0.124212 -0.029524 -0.112397
0.228819 0.361949 0.002484
0.118084 0.305591 -0.153263
-0.044880 0.160366 0.254784
-0.373363 -0.341718 0.059925
-0.057289 0.163928 0.148684
-0.021797 0.242150 0.258491
-0.135045 0.193487 -0.026089
0.285537 0.188779 -0.218426
0.236859 0.149542 -0.068013
0.180296 0.080987 0.031128
-0.118150 0.191017 -0.043884
-0.231795 -0.289849 -0.290804
-0.325016 -0.348689 0.026042
-0.374084 -0.321600 -0.064474
-0.180299 -0.164470 -0.327797
0.256317 0.047951 0.135431
-0.290956 0.008078 -0.156389
-0.114916 -0.028795 -0.088581
0.083064 0.015275 -0.019028
0.089712 0.168203 -0.155925
-0.063702 -0.163267 -0.216973
-0.192064 -0.335751 -0.428482
-0.270432 -0.104531 0.079839
-0.340718 0.038048 -0.172614
0.033275 -0.120309 -0.251406
-0.074612 0.247462 -0.101305
-0.106380 0.017787 -0.233016
-0.096513 -0.124206 -0.302877
0.263981 0.227268 -0.055877
0.113312 0.123244 0.179778
0.229069 0.137653 -0.066630
0.185700 0.224474 0.510986
-0.046044 0.346766 -0.063604
0.035700 0.439163 0.013138
-0.109374 0.225314 -0.025166
-0.429085 -0.310944 0.022996
0.011579 0.111024 0.268280
-0.132127 -0.350826 -0.420326
-0.072138 -0.114459 -0.165455
-0.172293 -0.365844 -0.412106
0.258820 0.172513 -0.055824
0.450942 0.193187 -0.194871
-0.057459 0.223820 0.152724
0.123676 0.308017 0.184760
0.349611 0.182297 0.105719
0.466889 0.144679 -0.225775
-0.348237 -0.288960 -0.006533
0.398028 0.280958 0.113418
-0.172345 -0.269201 -0.253884
0.421461 0.308076 0.090182
-0.182614 0.052006 0.055164
-0.026273 0.051144 0.091509
-0.112370 -0.362779 -0.397572
0.355584 0.240802 0.091845
0.308087 0.161007 -0.227977
0.080549 0.036069 0.090659
-0.050060 -0.178965 -0.336626
0.120209 0.432696 -0.019573
-0.227960 -0.249868 -0.279081
-0.078378 0.261802 -0.066143
-0.085685 0.277825 -0.067677
-0.185825 -0.186931 0.099634
0.027064 -0.016603 -0.051959
-0.211440 -0.033883 -0.008213
0.265599 0.276944 0.215583
0.274925 0.099339 -0.163689
-0.265586 -0.245718 -0.004414
0.219662 0.336577 0.165312
0.129600 0.198878 0.219270
0.223814 0.087142 0.118722
0.245212 0.051295 0.123697
-0.154974 -0.311302 -0.389051
-0.318892 -0.152579 -0.028157
0.181324 0.185595 0.529763
0.294813 0.171615 0.031201
0.074383 0.428137 -0.037966
-0.188468 0.063304 -0.093908
-0.360974 -0.335576 0.058691
0.504932 0.104558 -0.219723
-0.139708 -0.134229 0.126760
-0.201618 -0.296917 -0.394578
-0.358154 -0.197475 -0.055594
-0.170640 -0.339681 -0.438945
0.027174 0.434388 0.008805
-0.146414 0.122677 -0.084080
-0.334599 -0.277337 -0.019847
0.128260 0.303863 -0.149959
0.088885 0.122478 0.188653
0.286517 0.301738 0.126984
-0.142766 0.159680 -0.033066
0.437839 0.076751 -0.221424
-0.210112 -0.207685 -0.338323
0.389954 0.136189 -0.268080
-0.007617 0.126447 0.219437
0.484191 0.131917 -0.140675
0.322049 0.210416 0.050709
0.138211 0.149682 0.159500
-0.374387 -0.382737 0.051295
-0.034705 0.277189 0.175601
0.068878 0.227925 0.359002
0.104655 0.134321 0.384397
-0.252907 -0.059601 0.111160
0.310548 0.033540 0.124432
0.186159 0.333408 0.173944
-0.124622 -0.132224 0.062384
-0.082598 0.134179 0.096733
0.541823 0.043501 -0.200896
-0.094840 0.087456 0.095094
0.571449 0.036225 -0.136136
0.569115 0.069017 -0.169184
0.321244 0.149736 -0.236966
0.212762 0.402296 0.057348
0.519403 0.032809 -0.167934
0.206013 0.128732 0.009255
0.231802 0.297164 0.161718
-0.427288 -0.336719 0.015839
0.048590 0.130040 0.251426
0.338929 0.214725 0.074009
0.001287 0.212244 0.383564
-0.182579 0.011917 -0.053254
0.037326 -0.078692 -0.246399
-0.425798 -0.317823 -0.041168
0.020126 -0.160926 -0.264124
0.505172 0.040165 -0.172898
-0.289388 -0.323906 -0.330621
0.355323 0.041364 0.180954
-0.051762 0.189500 0.161424
0.185601 0.101781 0.032786
0.247517 0.104580 0.170891
0.285942 0.308027 0.047121
0.198156 0.119020 0.113967
0.093374 0.313297 -0.153675
0.255437 0.252778 -0.035346
0.168836 0.055842 -0.040605
0.238522 0.243972 -0.172124
0.158445 0.368544 0.160765
0.205283 0.131665 0.513822
0.023180 0.191137 -0.153091
0.314522 0.285301 0.087009
0.039812 -0.074076 -0.217521
-0.005391 0.319742 0.183166
0.071118 0.166633 -0.150243
0.309136 0.263546 0.068730
-0.291037 -0.164018 -0.032755
-0.110307 -0.124693 -0.290968
0.172350 0.419903 0.078521
-0.272555 -0.318101 -0.370668
-0.256726 0.041031 -0.105639
0.004846 0.200408 0.431504
-0.011353 0.129378 0.217485
0.260264 0.262687 -0.017783
-0.234742 -0.001020 -0.096250
-0.149246 0.108304 0.044428
-0.007748 0.154819 0.390518
0.008864 -0.148887 -0.224432
0.309617 0.308013 0.289277
0.149900 0.165067 -0.166742
-0.183712 -0.165564 0.043699
0.113946 0.240364 0.212634
0.364318 0.166428 -0.261217
0.168767 0.198350 0.440659
-0.246597 -0.267642 -0.354103
0.321755 0.244580 0.211379
0.150148 0.196411 0.420751
-0.004689 0.059270 -0.179383
0.211313 0.104978 0.120877
-0.166193 -0.172783 0.109515
0.044850 0.218341 0.458208
0.256708 0.159260 0.507996
0.566291 0.039450 -0.142115
-0.063576 0.288932 -0.096236
-0.137446 0.023110 0.109129
-0.388827 -0.189614 -0.038522
-0.150749 -0.390354 -0.394234
0.192790 0.120305 -0.136995
0.313942 0.245590 0.060550
0.008229 -0.104403 -0.163412
0.119903 0.121335 0.415093
0.034293 -0.013707 0.014559
0.036224 0.227721 0.286216
0.353228 0.066817 0.152965
0.123432 0.064128 0.118034
-0.180094 0.068365 -0.082406
0.354043 0.208393 -0.193057
0.488960 0.118259 -0.218337
-0.235726 -0.223189 0.016724
-0.359247 -0.289342 -0.055485
-0.059761 -0.063395 -0.098934
0.000315 0.113189 0.257052
0.348799 0.204259 -0.210811
0.392864 0.176968 -0.122613
0.472390 0.126801 -0.143688
-0.250800 -0.259952 -0.336389
0.223090 0.164962 0.196828
-0.393666 -0.214942 -0.061115
0.212225 0.114975 -0.123739
0.160409 0.209277 0.211073
-0.112568 0.014211 -0.230301
0.298535 0.303724 0.251804
-0.235188 -0.005608 -0.105350
0.539390 0.048964 -0.200715
0.259909 0.155772 0.508782
0.244638 0.211114 0.487466
-0.125921 -0.186457 -0.362135
0.075289 0.163078 -0.147909
-0.147830 -0.154974 0.062811
0.138624 0.193317 0.404778
0.224498 0.124940 -0.031957
-0.044165 0.280590 0.163696
0.545589 0.078543 -0.200440
-0.181860 0.056611 -0.113594
0.042710 0.128610 0.211130
-0.013266 0.164255 0.341880
0.083065 0.128025 0.474646
0.149162 0.247252 0.193678
0.241079 0.306151 -0.021164
0.430616 0.257806 0.094979
-0.088549 0.330210 0.067078
-0.170240 0.073066 0.045654
-0.344317 -0.280161 -0.002026
0.079340 0.182041 0.485163
0.032380 0.439122 0.031715
-0.020670 -0.106602 -0.307130
0.523170 0.117103 -0.206144
0.167032 0.119975 0.515226
0.278618 0.216126 0.494563
-0.147728 -0.107457 0.014922
0.590923 0.042060 -0.121520
-0.285952 -0.247896 0.072726
0.229694 0.236036 0.196613
0.167781 0.121767 0.522944
0.027556 0.229671 0.443904
-0.223478 -0.201501 0.034183
-0.156514 -0.103442 0.147580
-0.076476 0.228857 -0.096813
0.074553 0.301611 0.208200
-0.007753 -0.191372 -0.271725
0.245917 0.239133 0.201281
0.322264 0.145672 -0.124106
-0.107733 -0.255813 -0.251396
-0.203286 -0.214310 -0.260827
0.501844 0.077883 -0.158758
0.182755 0.104310 0.034953
0.087011 0.020252 0.028422
0.354297 0.233084 0.094003
-0.374553 -0.327260 -0.062256
0.262854 0.072960 0.163918
0.272801 0.077066 0.084103
0.184335 0.128534 0.497626
0.138006 0.136480 0.516006
0.423578 0.156443 -0.117349
0.000706 0.199399 0.370971
0.495942 0.144144 -0.206519
-0.334680 -0.269967 0.033685
-0.169353 0.082758 0.004223
-0.052916 0.382754 0.042645
0.132123 0.332401 -0.128035
0.309670 0.235418 0.220786
-0.145319 -0.144128 -0.255828
-0.075952 0.167448 0.137494
-0.132567 0.148926 -0.076223
0.116899 0.182885 0.499776
0.221115 0.135392 -0.197747
-0.095779 0.173171 0.100263
0.310091 0.208628 -0.144292
0.027409 -0.020445 -0.148242
-0.264176 -0.054851 0.075752
-0.192419 -0.244692 -0.249754
0.282603 0.293396 0.237070
-0.186005 -0.303350 -0.400074
0.108162 0.037799 -0.033931
-0.243392 0.004984 -0.098197
0.007070 -0.111695 -0.294911
-0.051349 0.113918 0.117020
0.201453 0.182387 0.479671
-0.185134 -0.237230 -0.372652
-0.368904 -0.386197 0.046669
-0.092394 -0.257641 -0.300633
-0.239423 -0.190325 -0.008009
-0.300640 -0.396382 0.047862
-0.125035 -0.266830 -0.344733
-0.092150 -0.021437 0.098881
0.066609 0.217363 0.341961
0.171034 0.053214 -0.029657
0.154476 0.302512 0.191880
0.207423 0.385884 0.110051
-0.239167 -0.034696 0.115048
0.027020 -0.026830 -0.148503
-0.156789 -0.152960 0.049118
-0.095554 0.312294 -0.004451
-0.134838 -0.033521 0.140199
0.471357 0.176212 -0.201449
-0.034242 0.250027 0.204244
-0.108132 -0.031957 -0.053628
0.353500 0.229320 0.093559
-0.209451 0.012920 0.114327
-0.232507 -0.269320 -0.363459
0.006993 0.146865 0.435982
0.537922 0.063876 -0.150808
0.238353 0.248769 -0.132722
-0.137826 -0.054003 -0.184303
-0.143595 0.098892 0.051912
-0.053909 0.178934 0.248449
0.063422 0.148122 0.301064
-0.085599 0.321971 0.091579
-0.000549 0.398120 0.118022
0.019571 0.103406 0.358056
0.195886 0.325184 -0.098262
-0.175685 0.079152 -0.053131
0.111235 0.238677 0.424046
-0.261166 -0.287427 -0.298544
-0.312627 -0.263110 0.024720
0.214356 0.244021 -0.178219
-0.118258 -0.001668 -0.238089
-0.147470 -0.281976 -0.357184
-0.008841 0.158393 0.406257
-0.360745 0.051045 -0.177109
0.307220 0.127589 -0.134699
0.546901 0.127734 -0.132112
-0.138749 -0.144005 0.057405
0.187474 0.253083 0.455727
0.275250 0.317130 0.112981
-0.000987 -0.009065 0.036939
-0.091499 0.275362 -0.028498
-0.072105 0.325906 0.111167
-0.447801 -0.281123 -0.037764
0.275905 0.132821 0.066534
-0.044430 0.386546 0.048552
0.427765 0.063316 -0.203340
-0.014075 0.087581 -0.166987
0.049307 0.229823 0.361080
0.519297 0.130904 -0.205710
-0.158267 -0.141603 -0.331876
0.025822 0.204640 -0.162612
0.102564 0.331203 -0.141894
0.377699 0.098862 -0.243386
-0.052501 0.217594 0.228979
-0.279819 -0.216380 -0.042354
-0.020365 0.209481 0.323221
-0.102555 0.288051 -0.028324
-0.442366 -0.257325 -0.085968
-0.256962 -0.028905 0.061381
0.054924 0.054760 0.134025
0.022376 0.379555 -0.090855
0.389513 0.283238 0.055071
0.252426 0.263679 0.200671
-0.107735 -0.413812 -0.412162
0.285311 0.270859 0.167843
0.550511 0.089992 -0.191340
0.163382 0.056411 0.021590
0.232871 0.379142 0.057184
-0.247633 -0.140675 0.120529
-0.246221 -0.201818 0.128610
-0.100153 -0.093290 -0.281382
0.147320 0.388854 0.146678
0.464621 0.291014 0.054327
-0.135124 -0.285577 -0.329453
-0.170181 -0.327988 -0.316616
-0.247610 -0.005984 -0.126681
-0.417747 -0.267195 0.002525
-0.197488 -0.186503 0.052287
0.428120 0.082824 -0.168488
0.315020 0.194989 -0.207485
0.308123 0.292484 0.292536
-0.226530 -0.218195 -0.319326
-0.426969 -0.333387 0.006616
0.246055 0.130194 -0.212923
-0.232341 -0.244607 -0.343013
0.230184 0.136620 0.184117
-0.102043 0.203790 0.104055
0.033242 -0.009927 -0.045855
-0.412030 -0.351716 0.033267
0.265733 0.204541 0.207774
0.093983 0.113320 0.360282
0.144113 0.269201 -0.147536
0.160263 0.247062 -0.157527
0.044430 0.191397 0.473585
0.131536 0.345024 -0.123146
0.244371 0.201851 0.490194
0.195411 0.415682 0.046121
0.273692 0.322250 0.117984
-0.144354 -0.123496 0.134894
0.025102 0.224157 0.379881
0.288591 0.145190 -0.226216
0.369803 0.122170 -0.140384
0.062708 0.236944 0.419250
-0.382928 -0.243544 -0.069639
0.562277 0.001409 -0.165505
-0.377375 -0.236496 -0.066767
0.215583 0.392996 0.014979
0.234094 0.146864 -0.012941
0.130018 0.145419 0.416501
-0.126851 -0.057025 -0.032692
-0.000806 -0.094317 -0.144989
0.071695 0.218639 0.464972
-0.054393 0.232531 0.155804
0.417805 0.202550 -0.189718
-0.039499 0.208687 0.270980
0.209108 0.194824 0.471354
-0.243107 -0.193373 -0.012723
0.147216 0.104029 0.105587
0.094767 0.040970 -0.032354
0.574629 0.157356 -0.104751
-0.008209 -0.052802 -0.055775
0.017856 -0.027354 -0.059089
-0.112717 -0.103352 -0.175541
0.280673 0.206862 -0.218545
-0.157478 -0.189100 -0.230341
-0.346239 -0.347840 0.063744
-0.072290 0.297590 0.135899
0.082803 0.149490 0.208138
0.029218 -0.019184 0.017511
-0.045872 0.231427 0.190790
0.043865 0.000638 -0.041702
-0.049024 0.064737 -0.199879
-0.011870 0.294744 -0.138348
-0.425142 -0.242585 -0.037082
-0.041660 -0.193946 -0.244788
0.268983 0.213160 -0.102762
0.417566 0.105577 -0.249829
0.063258 0.101753 -0.117138
-0.213147 -0.001497 -0.101731
-0.098155 -0.034391 0.108404
-0.070853 0.283790 0.138995
-0.119362 0.005344 0.113125
0.202780 0.408885 0.029584
-0.186810 -0.190401 0.081013
-0.153947 -0.315895 -0.404204
-0.126865 -0.127807 0.108234
0.094567 0.320195 0.186779
0.053559 0.430375 0.090029
-0.060663 -0.077023 -0.033569
-0.149948 -0.138537 0.037918
-0.199597 -0.331109 -0.420252
-0.177139 -0.082618 -0.008064
-0.281644 -0.112936 0.066365
0.264119 0.201946 0.505439
-0.159283 -0.167685 0.072883
-0.289559 -0.308577 -0.365655
-0.179522 -0.088894 -0.005259
-0.440084 -0.330206 0.013193
0.170428 0.347276 -0.103596
-0.011192 0.132594 -0.145818
0.236252 0.241512 -0.102779
-0.280121 0.047890 -0.124159
0.069780 0.229063 0.455827
-0.090539 -0.394279 -0.397622
-0.276717 -0.252937 0.047572
0.143100 0.184304 0.188636
0.001409 0.207244 -0.156761
-0.304475 -0.126864 0.010719
0.315678 0.266281 0.249008
-0.206518 -0.046386 -0.012967
0.119525 0.220641 0.218152
0.300534 0.123731 0.181515
-0.155091 -0.137265 -0.308803
0.149626 0.335612 -0.122368
-0.248279 0.012098 -0.095932
-0.237380 -0.001817 -0.130486
0.130271 0.185971 0.393749
0.205174 0.153432 0.520570
-0.424236 -0.329189 0.057433
-0.250267 -0.181670 0.125565
-0.035544 -0.187618 -0.328424
-0.189916 0.024767 -0.037699
0.249870 0.242397 0.214828
-0.110534 0.187751 0.059431
-0.175392 -0.285670 -0.378320
-0.073358 -0.239465 -0.318683
0.404812 0.060703 -0.180014
-0.019601 0.106215 0.140125
-0.226332 0.011002 0.027412
0.344778 0.207605 -0.164651
-0.111792 -0.113443 0.069964
-0.409372 -0.324948 -0.049330
-0.393306 -0.346632 -0.010168
-0.070797 0.251572 -0.105820
-0.055070 0.197152 0.205851
-0.087411 0.320725 0.088100
-0.063220 0.320685 0.131514
-0.052074 0.230807 -0.127995
-0.134313 -0.131672 -0.325803
0.117354 0.220037 -0.154397
0.213725 0.181814 0.492722
-0.352435 -0.388601 0.044239
-0.221276 -0.273813 -0.372378
-0.008784 0.037156 -0.210233
0.137014 0.186614 0.405797
-0.141082 -0.330313 -0.389608
-0.060432 -0.137433 -0.318649
-0.130787 -0.014562 -0.070916
0.271398 0.072692 0.085056
-0.011673 0.181320 0.394780
0.050109 0.097501 0.410617
0.115963 0.166778 0.506462
0.231057 0.152872 0.030359
-0.273550 -0.095930 0.056092
-0.011189 0.118208 0.288658
-0.238842 -0.001294 0.084855
0.329499 0.186313 -0.144209
0.016020 -0.041352 -0.040543
0.015138 0.394084 0.138956
-0.087114 -0.398597 -0.401324
-0.107317 0.052682 -0.177845
0.093244 0.027262 0.027439
-0.400533 -0.320753 -0.086356
-0.130666 0.080210 -0.130489
-0.051096 -0.092634 -0.304420
-0.425895 -0.273749 0.002289
-0.233745 0.032879 -0.086592
0.018342 0.009608 -0.176273
0.368642 0.075036 -0.164899
-0.068538 0.351010 -0.010190
-0.326879 -0.255681 0.057113
0.343359 0.099422 -0.136889
0.046670 0.361084 -0.114050
-0.105968 0.289813 0.043331
0.142697 0.307474 -0.142578
0.098183 0.039615 -0.013878
-0.134613 0.048289 -0.147061
-0.023700 -0.069172 -0.029940
0.255820 0.105698 -0.178027
0.317943 0.204403 -0.153911
0.203313 0.409068 0.066134
0.060898 0.122268 0.186323
-0.272573 -0.132495 0.006705
-0.034095 0.384087 0.091144
0.055577 0.230972 0.363751
0.277442 0.211723 0.488678
-0.335157 -0.385450 0.085295
0.197466 0.307116 -0.104478
-0.024352 0.043813 -0.215473
0.485258 0.056690 -0.175385
0.216943 0.195492 0.507508
0.243109 0.157779 -0.082422
0.109660 0.220087 0.366968
0.246787 0.103240 0.076788
0.440281 0.271949 0.093806
0.185327 0.165671 0.157175
0.208435 0.141326 0.543182
0.402114 0.236714 0.103035
-0.122251 -0.059162 0.131183
0.218093 0.124527 0.149115
-0.297122 -0.184488 0.104471
-0.265754 -0.219258 -0.032519
-0.094859 -0.397721 -0.394004
-0.003174 0.000729 0.048039
0.179938 0.174396 0.530551
-0.138522 -0.097803 0.139787
-0.385036 -0.171667 0.001403
0.075844 0.023240 -0.031300
-0.386794 -0.371653 0.095803
0.315006 0.116836 0.074563
0.241620 0.375898 0.061309
0.341122 0.278945 0.272921
0.296586 0.092726 0.083252
0.012517 0.360099 -0.108724
-0.182950 -0.150813 0.030012
-0.078420 0.173329 -0.119548
-0.364151 -0.252078 0.048483
-0.154075 -0.351966 -0.321152
0.274299 0.225592 -0.181774
0.114407 0.190685 0.219020
0.439926 0.153013 -0.253361
-0.044007 0.158061 0.266721
0.028823 0.108342 0.309458
0.370397 0.167103 -0.114955
0.250977 0.271755 0.187338
0.137020 0.136532 0.157853
-0.110346 0.198619 -0.082486
0.134740 0.230708 -0.155265
0.016927 0.035474 0.078887
-0.140532 0.187151 -0.023330
0.557662 0.022107 -0.162465
-0.126213 -0.415237 -0.361605
-0.014462 -0.044365 -0.288791
0.002095 0.175372 0.441165
0.423798 0.151218 -0.262830
0.272871 0.293733 0.144170
-0.127849 -0.132791 0.054498
-0.031744 0.285488 -0.128944
0.256513 0.162915 0.197532
-0.401232 -0.231516 -0.065094
0.101838 0.399554 -0.073884
0.452035 0.109220 -0.239549
-0.218391 -0.020981 0.129786
-0.021216 0.089740 0.132705
-0.113106 -0.378025 -0.444786
0.228492 0.158831 0.526758
-0.133150 0.102389 -0.120129
0.192710 0.328837 0.175169
0.149869 0.241955 -0.157212
0.269983 0.109198 -0.196824
0.128959 0.234996 0.453422
-0.259827 -0.200557 0.113637
-0.036951 0.058411 -0.203872
-0.138005 -0.149635 0.089219
0.158697 0.379880 0.152973
0.320310 0.071747 0.094268
0.234185 0.087430 0.138897
0.217953 0.111670 -0.156290
0.031332 -0.113303 -0.214805
0.317782 0.068371 0.096889
0.359692 0.094715 -0.160670
-0.371348 -0.186763 0.059554
-0.223310 -0.213886 -0.300562
-0.208815 -0.223398 -0.264785
0.303492 0.163998 0.193937
-0.010861 -0.050347 0.001938
0.225340 0.227717 0.498320
-0.019721 -0.147090 -0.313589
0.423187 0.287289 0.105577
-0.066856 0.290034 0.142141
0.004734 -0.073962 -0.137016
-0.298066 -0.415255 0.057761
-0.018005 -0.191527 -0.265871
-0.109577 0.264236 0.077864
-0.013474 0.405534 0.086055
0.037401 0.007546 -0.094886
-0.113179 0.263804 0.006193
-0.005620 -0.001295 -0.264179
-0.145722 0.050163 0.081848
0.329636 0.162605 0.071202
0.263731 0.141155 0.061835
-0.346652 0.065656 -0.170070
-0.074515 -0.065340 -0.004081
0.305830 0.212229 0.037729
0.311947 0.187657 0.187146
0.356372 0.107396 -0.242986
-0.033803 0.162306 0.181103
0.273178 0.051853 0.147018
0.349294 0.143375 0.108060
-0.156308 0.148029 0.002488
0.579074 0.058291 -0.156599
0.526513 0.022492 -0.177621
0.336243 0.283018 0.106330
-0.118192 -0.386011 -0.350517
-0.123783 -0.404214 -0.399639
0.092320 0.443782 0.004085
-0.013763 0.091087 0.136838
0.515440 0.052794 -0.214867
0.080722 0.298391 0.207678
-0.209238 -0.018157 -0.009088
0.043638 0.265642 0.229747
-0.027532 0.008884 -0.270463
-0.136302 -0.125058 0.127464
-0.022514 0.349503 -0.086347
-0.372912 -0.183214 0.055199
-0.208013 -0.097932 -0.004404
0.232423 0.377239 0.052130
-0.110783 -0.411605 -0.412071
0.013268 0.146157 -0.137228
0.117895 0.276917 0.207474
-0.075234 -0.124489 -0.179608
-0.020890 0.322523 -0.119025
-0.140557 0.170658 -0.020300
0.006991 0.420938 0.083899
-0.267315 -0.152986 -0.014842
0.380513 0.077047 -0.166952
0.279223 0.315560 0.099470
0.027864 0.258486 -0.154964
-0.176108 0.026134 0.108351
0.387018 0.122808 -0.139007
-0.269184 0.030808 -0.169020
0.128991 0.187908 0.510593
0.011792 0.008765 -0.225995
0.124395 0.433380 -0.001196
0.198476 0.244669 -0.174469
-0.322233 -0.402321 0.033962
-0.184998 0.015072 0.119542
-0.362627 -0.306574 0.031271
-0.027950 0.399772 0.039131
0.130730 0.253717 -0.152821
0.305927 0.213732 0.218943
-0.292584 -0.124014 0.044167
-0.145903 -0.057685 0.148738
0.047893 0.162159 0.479849
0.222746 0.163682 0.504610
0.269931 0.269655 0.015675
0.100387 0.219764 0.221890
0.404442 0.074278 -0.226444
-0.061652 0.140350 -0.146610
0.326463 0.191453 0.158208
0.408619 0.126574 -0.137309
0.263676 0.139708 -0.104955
-0.049879 0.210785 0.186965
-0.240481 -0.108269 0.005733
-0.105610 -0.187496 -0.355474
-0.091919 0.049242 -0.198536
0.383827 0.302795 0.078530
-0.112528 0.190885 0.099781
0.015900 0.230576 0.409507
-0.093688 -0.418885 -0.405028
0.170263 0.052340 -0.003451
-0.290272 -0.204597 0.109846
0.315750 0.188132 0.044315
-0.177238 -0.198066 -0.359229
0.014649 0.178095 0.461188
0.027514 -0.027749 0.010519
-0.195212 -0.267667 -0.375402
0.290610 0.225216 -0.177557
0.491773 0.155713 -0.203280
0.130322 0.060876 0.095082
0.572677 0.117095 -0.154748
-0.181742 -0.265041 -0.255405
-0.292910 -0.201439 0.111635
0.137496 0.211076 0.216089
-0.051635 -0.141399 -0.319532
-0.187557 0.022814 -0.055571
0.073312 0.127958 0.318758
0.164439 0.316545 0.181434
-0.351886 -0.163743 -0.031427
0.139470 0.155301 0.527043
-0.385775 -0.222576 0.049703
0.221675 0.156161 0.519900
0.310870 0.215783 -0.178015
0.045918 0.230604 0.369250
0.034778 0.439290 0.040119
0.063154 0.228733 0.250229
0.127861 0.428797 -0.024756
0.109312 0.053112 0.116382
0.277429 0.114438 -0.197683
0.231136 0.147001 -0.210280
0.305244 0.136111 0.198710
-0.206974 -0.291058 -0.282372
-0.046907 -0.199198 -0.245720
-0.139097 -0.054129 -0.029217
-0.017766 0.306567 0.179460
0.390099 0.255737 0.119895
-0.244799 -0.202058 -0.015980
-0.377281 -0.166967 0.034251
-0.079251 -0.057252 0.066982
0.143139 0.373334 0.162499
-0.079135 0.133822 0.099914
-0.034560 -0.212628 -0.294304
-0.296616 -0.141843 0.079426
0.405564 0.239859 0.109263
0.174397 0.055088 -0.026881
0.098020 0.214886 0.350255
0.092776 0.079124 0.160091
-0.031971 0.134623 0.279396
0.345147 0.173748 0.116436
-0.365919 -0.290818 0.021883
0.206703 0.087885 -0.010792
-0.001516 0.056271 0.099399
-0.331501 -0.361432 0.033829
0.383455 0.153401 -0.116979
-0.338456 -0.368963 0.078553
0.177469 0.263276 -0.139525
0.065876 0.161833 0.284293
-0.246954 -0.072830 0.013651
